281
-4.6950001717 -4.7659997940 5.0000000000
-6.5359997749 -7.1440000534 5.0000000000
-1.9424912890 -6.4022880558 5.0000000000
1.2552321451 -6.5713073856 5.0000000000
4.1647315822 -5.2346553564 5.0000000000
6.1203642800 -2.6996667833 5.0000000000
6.6740564601 0.4538975678 5.0000000000
5.6982223687 3.5033123907 5.0000000000
3.4176601774 5.7504961041 5.0000000000
0.3538055325 6.6796263730 5.0000000000
-2.7910095715 6.0792755580 5.0000000000
-5.2966778606 4.0860180959 5.0000000000
-6.5888962335 1.1565274060 5.0000000000
-6.3723320708 -2.0382017614 5.0000000000
-8.5007802593 -4.6342920739 5.0000000000
-9.5451558038 -1.6230644076 5.0000000000
-9.5543778560 1.5640395697 5.0000000000
-8.5288074837 4.5815306642 5.0000000000
-6.5788831631 7.1023395421 5.0000000000
-3.9161299316 8.8534964273 5.0000000000
-0.8291984637 9.6452066210 5.0000000000
2.3476707237 9.3922661804 5.0000000000
5.2699886798 8.1208339910 5.0000000000
7.6211128723 5.9695464876 5.0000000000
9.1468543063 3.1716475965 5.0000000000
9.6806309498 0.0298948689 5.0000000000
9.1662541593 -3.1151551952 5.0000000000
7.6581064653 -5.9226112866 5.0000000000
5.3201277970 -8.0883136263 5.0000000000
2.4057009371 -9.3781443094 5.0000000000
-0.7697915701 -9.6514005941 5.0000000000
-3.8618379316 -8.8783554899 5.0000000000
-5.0905405271 -3.0962707369 -8.9169815212
-1.0312283501 -6.0590505387 -8.1316478615
-0.4169572310 -5.5932947041 -10.1669254447
-4.6347906743 -2.2393075005 -11.5168706418
-5.8723682870 -0.1107706132 -9.2429179483
-2.8963507134 -4.7816840065 -10.2247678381
-1.8289086678 -1.5037275478 -15.9950550526
-3.5073029408 -1.2664712507 -14.3837380680
-2.7240250513 -3.6578861778 -12.8921272750
-4.7911764421 0.6764853978 -12.2810269897
-4.8226917828 2.7359988452 -10.3730955873
-5.6031467590 2.5480591580 -8.0907479179
-1.1343030583 -3.2153842675 -14.8436484524
0.4069407016 -1.4006416652 -16.6233864623
-1.8226318852 0.7784267778 -16.3002374223
-3.3564354563 1.5664340008 -14.4213644945
-2.9374090864 4.6191322625 -10.5888947991
-0.0664681025 -4.8178203884 -12.3279506349
-3.2952029467 3.3052302049 -12.6667967509
-3.9487848885 4.6360067277 -8.3818617339
1.6832618647 -3.1868770653 -14.5705295737
2.8029720978 -0.7389986706 -15.4705324128
1.4022398291 1.8488187796 -16.0353440969
-1.1326411290 3.3469744239 -14.6719264719
2.2075039972 -5.3907830723 -9.4223854150
2.6860723352 -4.0493912972 -12.2328817250
-0.8099649371 4.8630097228 -12.0645394457
-1.0064233695 5.8639336850 -8.9512779155
3.9697658516 -1.7506226427 -13.3359506509
3.8029917032 1.3498883428 -13.8871545024
1.8101642855 3.8511519009 -13.4944686271
4.7809161101 -3.7837285966 -8.3481641893
4.5353088495 -2.9643172242 -10.7584431334
1.8151047702 5.1413656741 -10.6582965745
1.7720753075 5.8853704130 -8.1304972427
5.2009732464 0.1100402435 -11.3724962732
4.1524281049 3.1259725098 -11.3833702632
5.8876347351 -1.2022209293 -8.7134219745
4.0518555429 4.4639396097 -8.6342783102
5.6666982794 1.8833967449 -8.8653491369
-4.0402172091 -4.9962985856 -6.7390914350
-1.6217914160 -6.4032996831 -5.6165296852
-6.1275290326 -2.1112168445 -6.4171445879
-6.4449100191 1.0553547485 -6.1158622809
-5.2355618033 3.9637079418 -5.8804666006
5.5476600354 3.4501513347 -6.0973778665
3.3252698933 5.6528462380 -5.9340165312
0.3127962501 6.5412864697 -5.9951756356
-2.7554701796 5.9328822158 -6.0433401211
1.1810185431 -6.4170193163 -6.1491676782
3.9668972035 -5.1643352327 -6.2260288949
5.9589453107 -2.6812270631 -6.0825764114
6.5109498074 0.4241205519 -6.1498678356
-5.6985448032 -3.7775545046 -3.6327217757
-3.3372081511 -5.9861527983 -3.4443689694
-0.2444119462 -6.8627780916 -3.2901649463
-6.8245185588 -0.6006517905 -3.4717131509
-6.3146583664 2.6919362318 -3.3144198928
6.5344322531 2.0924587155 -3.3539681878
-4.3050299844 5.3500463372 -3.2782849105
4.8074979846 4.9003542136 -3.3126599947
1.9715155524 6.5763429727 -3.2963767656
-1.3222411160 6.7376200838 -3.3024186829
2.8609215253 -6.2319351746 -3.4046950045
5.4074452942 -4.2163747934 -3.4039937949
6.7539287456 -1.2036573083 -3.3674098689
-1.9651132458 -6.7130983504 -0.5736692955
-6.6272576431 -2.2341301539 -0.6648259764
-4.8481722740 -5.0402276829 -0.6361102249
1.3456055182 -6.8645081168 -0.5604360815
-6.9007025300 1.1425958405 -0.5832208113
-5.5611457092 4.2435474702 -0.5303238735
5.9588479232 3.6640357623 -0.5455149975
6.9792499380 0.4681405825 -0.5464592065
-2.9263515058 6.3538272736 -0.5214766068
3.5699171620 6.0168388310 -0.5345783497
0.3633687082 6.9861549268 -0.5263408594
4.3539820307 -5.4748494622 -0.5831821113
6.3932811391 -2.8384896005 -0.5676396685
-6.9203352270 -0.5019334194 2.2240757451
-0.3465650225 -6.9290473269 2.2380911026
-3.5250220226 -5.9772743325 2.2215971443
-5.8949186930 -3.6619725932 2.2135262462
2.8955375275 -6.3043418220 2.2404276308
-6.3576165787 2.7788562908 2.2397069577
-4.3177531143 5.4294555244 2.2558451113
4.8714925138 4.9389529901 2.2553796083
6.6071334573 2.1131471046 2.2559092346
6.8319069085 -1.2036125331 2.2546449928
-1.2960232640 6.8152476091 2.2565649456
2.0154819700 6.6377827101 2.2565390408
5.4916607090 -4.2392118255 2.2461164914
4.0034773814 -7.5432721464 -10.4015039123
4.0122787241 -8.3817407282 -7.3820888229
1.2499553342 -8.7797934505 -9.2343767518
6.1724127466 -5.6778155632 -10.8855829801
5.0899376096 -8.6003606416 -0.6753843469
3.7671355482 -9.0473758159 -3.9621972400
1.6839532206 -9.3338409776 -6.3293830147
1.2492934386 -7.6484594966 -12.6339773581
2.7526928821 -6.0128601500 -14.9973215846
4.5686953418 -6.0561672313 -13.0263110145
6.3258913422 -6.5190283557 -8.3573760201
6.2904723506 -7.2742006280 -5.4767837783
6.2660871147 -7.6596599185 -2.8587453765
3.7859193554 -9.1930385796 2.1161801782
-0.6316566038 -1.2323341699 -19.8049607995
1.8523316986 -1.8717866139 -19.2907503861
2.3808963661 -4.3748358757 -17.3385274619
7.5460377532 -6.5539287977 -0.5367592821
2.1113423685 -9.7620001380 -0.9423167855
0.3078656200 -9.8005360710 -3.9108862913
-1.1958726150 -9.2876484706 -7.0085372157
-2.1771637141 -8.2477854154 -10.4306880378
-1.7894885400 -7.1276081540 -13.5588334248
0.0552819163 -6.1611497351 -15.7512688430
-2.0949921356 0.6033591622 -19.5147071398
4.9768628040 -4.0560110622 -15.3291829608
6.9866047938 -3.3942523516 -12.5893182002
7.8940444697 -3.9584237068 -9.3786476345
8.1610869814 -4.8153980471 -6.3765478733
8.0671290465 -5.6539765364 -3.4342395900
0.5799275844 -9.9302029838 2.0248899386
-4.3284251923 -8.2632916837 -7.1981234707
-5.3193943251 -6.9052111104 -9.7959946960
-0.9767071391 -3.9432629750 -18.2741020296
-2.7070362562 -1.6904356813 -18.9507965474
0.6700054678 1.6300046105 -19.6838095476
3.4623465524 0.4945606656 -18.7333767760
4.4922306008 -1.8617283490 -17.4712177305
8.5277739576 -1.0470448849 -10.2283923249
9.1971445848 -3.9006764146 -0.8519131916
-1.2689740148 -9.9045402368 -1.0114403217
-2.9770137909 -9.3208935750 -4.1068064424
-4.5119835446 -6.2995579707 -12.6371785566
-3.1249013507 -5.3697729797 -15.6674745760
6.4352872770 -1.2640670642 -15.0934397140
7.6742482741 -0.4710028654 -12.7853237218
9.1740786175 -1.7555998717 -7.1329089667
9.3923093230 -2.7956207421 -3.9674911605
-2.6831902635 -9.5804259867 2.0055175407
-4.2127698767 -2.8612175162 -17.2101882091
-4.2968030884 0.1814740935 -18.0537222434
-2.6256196837 3.1114400855 -18.2657046556
0.4413670782 4.5272097618 -17.8073741000
3.2537286100 3.1666303447 -17.8165347097
5.3677511968 1.1090709161 -16.7253269739
9.9549534735 -0.7193690182 -1.1890439964
-4.4501322418 -8.9385494547 -1.0421319098
-5.9672513429 -7.7540210192 -4.1201102047
-7.1782784305 -5.9547092744 -7.2059360736
-7.0946260967 -4.4360354238 -10.9452001680
-5.8218366977 -3.7617735188 -14.4146914559
6.8566209879 1.7120591504 -14.1457396143
8.0494620730 1.8754680059 -11.2521771659
9.0273776782 1.7054536952 -7.8909469345
9.7339169621 0.4470112882 -4.4857291904
-5.6443204616 -8.1901980284 2.0342296384
-6.1289709681 -0.7658618917 -15.7275650841
-5.3542552681 2.2335600899 -16.2881605653
-4.0774237145 4.4081217953 -15.9883196797
-1.9335862017 5.5270938790 -16.2080492750
0.3381696640 6.2078107359 -15.6618563220
2.7040607019 5.4619099622 -15.8525163842
5.1301338698 3.8773066675 -15.3122885867
9.6427797954 2.5349335517 -1.4962167980
-7.0983256439 -7.0262444170 -0.9080093705
-8.1491879690 -5.4935790162 -3.6771528103
-8.8090472677 -3.7691387770 -5.7092675777
-8.6105320449 -2.9866994264 -8.2209617939
-8.3635216680 -1.6733068241 -10.4351046142
-7.4790079167 -1.4663498282 -12.9459416130
6.5094054621 4.2791314736 -12.5353265552
7.5926255007 4.3628433539 -9.6529920839
8.1988111956 4.4955274263 -7.0836186858
9.0757425040 3.4678254344 -4.7191516656
-7.9749008079 -5.9367280173 2.1185661296
-7.0894067093 1.5370112960 -13.7611713226
-5.8260989422 4.1727704645 -13.9431400362
-3.7746623864 6.0949694004 -13.9380310079
-1.2469415642 7.1193652245 -13.8161561628
1.5530511606 7.1536285478 -13.6199671075
4.2421913883 6.1281749825 -13.3311885855
-8.9944363460 -4.3538542991 -0.6750465987
-9.4937322707 -2.6828185082 -3.2485517000
-9.4896813813 -1.1687897741 -5.8444864602
-9.0715732081 -0.0002349657 -8.4134781768
-8.2755384754 0.9099600188 -11.0735351638
5.4982397592 6.4670046940 -10.5656919731
6.5271939282 6.4994596996 -7.7783975114
7.5347662900 6.0789932812 -5.0041026202
8.4143244110 5.2971640373 -2.1076916057
-9.4553928084 -3.0572095399 2.2122363441
-7.3466644651 3.6702757467 -11.4073931025
-5.5376523178 6.0246254383 -11.4905631736
-3.0381488860 7.6119280147 -11.4511454429
-0.1454654227 8.2400441220 -11.3216733478
2.8181922431 7.8360737702 -11.0664412773
7.2868685088 6.8448895270 -0.2541853043
-9.9109293745 -1.2977514475 -0.5277559718
-9.8581570848 0.3906214842 -3.2501121764
-9.3733282399 1.7898243535 -5.9747683127
-8.5299803595 2.8866722195 -8.6876596394
4.0614203059 8.1369787417 -8.3124597295
5.2751898212 8.0351312219 -5.5102665421
6.4141063226 7.5440687449 -2.7757828167
-9.9338504362 0.1820221166 2.2489808666
-7.0620329227 5.5307802883 -8.8326377683
-4.7838157184 7.5836378782 -8.8482077294
-1.9481252147 8.7703754989 -8.7774273732
1.0985686245 8.9558939943 -8.6154146167
5.1504082247 8.5684790540 -0.3040112989
-9.8073167954 1.9306526307 -0.5222393248
-9.2307332782 3.4705565120 -3.3007985209
-8.2931044499 4.6895285671 -6.0671494978
2.4551692069 9.2459371347 -5.8197122581
3.8216732244 9.1145342336 -3.0298107343
-9.3510715653 3.3558875244 2.2498140427
-6.3348820434 7.1117461295 -6.0862961086
-3.6963116565 8.7808823936 -6.0699380589
-0.6634815045 9.5167235438 -5.9936694677
2.3069953803 9.7269829107 -0.3912590075
-8.6759436492 4.9617662854 -0.5346649923
-7.6318629066 6.2443835700 -3.3161992467
0.7896241458 9.8403443501 -3.1740813860
-7.7769671619 6.1818105495 2.2526518599
-5.2650619985 8.3387180435 -3.3029458913
-2.3643028507 9.5781231109 -3.2579415839
-6.6478017572 7.4630953956 -0.5256626803
-0.8613025145 9.9584286044 -0.4524847665
-3.9536537793 9.1794422060 -0.4990139563
-5.3904612524 8.3440234503 2.2623868604
6.5345727473 -7.4869443896 2.1958630089
8.5887511877 -5.0075022045 2.1202613793
9.7605194498 -1.9280988425 1.9845456295
8.7510191377 4.7766805744 1.5089199763
3.8510217431 9.1524119619 2.3395381625
0.7415058644 9.9034193979 2.3113496721
-2.4493547642 9.6258795651 2.2848662623
9.8578482452 1.4026068206 1.8122153900
6.5742131247 7.4469838246 2.2753249464
-7.9607410431 -2.2439019680 -4.5851244926
-0.3081709146 1.7559225559 -17.4500427246
-3.0994250774 2.6150102615 -15.6385068893
-7.2652058601 1.5215462446 -8.4433078766
5.5719423294 5.8115262985 -5.6123604774
8.2248258591 2.4930973053 0.3428627253
-1.5356260538 -1.1181330681 -17.6168365479
0.8286139369 7.0969963074 -9.7671117783