96
5.000000 -5.000000 5.000000
5.000000 5.000000 5.000000
-5.000000 5.000000 5.000000
-5.000000 -5.000000 5.000000
5.000000 5.000000 -5.000000
5.000000 -5.000000 -5.000000
-5.000000 -5.000000 -5.000000
-5.000000 5.000000 -5.000000
5.000000 -1.666667 5.000000
5.000000 1.666667 5.000000
1.666667 5.000000 5.000000
-1.666667 5.000000 5.000000
-5.000000 1.666667 5.000000
-5.000000 -1.666667 5.000000
-1.666667 -5.000000 5.000000
1.666667 -5.000000 5.000000
5.000000 1.666667 -5.000000
5.000000 -1.666667 -5.000000
1.666667 -5.000000 -5.000000
-1.666667 -5.000000 -5.000000
-5.000000 -1.666667 -5.000000
-5.000000 1.666667 -5.000000
-1.666667 5.000000 -5.000000
1.666667 5.000000 -5.000000
-5.000000 -5.000000 1.666667
-5.000000 -5.000000 -1.666667
5.000000 -5.000000 1.666667
5.000000 -5.000000 -1.666667
-5.000000 5.000000 1.666667
-5.000000 5.000000 -1.666667
5.000000 5.000000 1.666667
5.000000 5.000000 -1.666667
1.598666 0.220307 5.000000
-1.081938 2.295188 5.000000
-2.049839 -0.504081 5.000000
-0.092217 -2.668473 5.000000
2.634623 -2.822966 5.000000
-2.761745 -2.967844 5.000000
1.598666 -0.220307 -5.000000
-1.081938 -2.295188 -5.000000
-2.049839 0.504081 -5.000000
-0.092217 2.668473 -5.000000
2.634623 2.822966 -5.000000
-2.761745 2.967844 -5.000000
-1.922306 -5.000000 -0.022263
0.005899 -5.000000 -2.638241
1.936676 -5.000000 -0.017387
0.005747 -5.000000 2.606168
-2.716645 -5.000000 2.850114
-2.716615 -5.000000 -2.865434
2.721848 -5.000000 -2.864459
2.721818 -5.000000 2.851090
-5.000000 1.922306 -0.022263
-5.000000 -0.005899 -2.638241
-5.000000 -1.936676 -0.017387
-5.000000 -0.005747 2.606168
-5.000000 2.716645 2.850114
-5.000000 2.716615 -2.865434
-5.000000 -2.721848 -2.864459
-5.000000 -2.721818 2.851090
1.922306 5.000000 -0.022263
-0.005899 5.000000 -2.638241
-1.936676 5.000000 -0.017387
-0.005747 5.000000 2.606168
2.716645 5.000000 2.850114
2.716615 5.000000 -2.865434
-2.721848 5.000000 -2.864459
-2.721818 5.000000 2.851090
5.000000 -1.922306 -0.022263
5.000000 0.005899 -2.638241
5.000000 1.936676 -0.017387
5.000000 0.005747 2.606168
5.000000 -2.716645 2.850114
5.000000 -2.716615 -2.865434
5.000000 2.721848 -2.864459
5.000000 2.721818 2.851090
-1.860740 1.998372 -3.319672
-2.011089 3.212240 -1.641152
1.664876 -0.028226 -1.872313
-0.808657 -0.807496 -0.996791
-3.032635 0.696444 -1.785124
-0.400919 2.253932 -0.518056
2.122155 -2.376634 -2.307684
1.617504 -0.051169 1.468192
0.452850 -2.994858 -0.042164
-2.824893 1.784057 1.691665
-1.295587 -2.243135 2.793584
-1.824965 -2.904482 -2.813471
2.735779 -3.081446 1.960787
2.382766 2.425263 1.913075
-2.980486 -1.188994 1.515011
-1.431975 3.164812 2.304117
-3.073243 2.547727 3.653661
2.700818 2.876843 -1.872907
-3.377011 -3.041682 -3.714221
-3.560309 -2.125191 -1.677191